-0.099245 -0.03102 1.80873
-0.099095 -0.0878201 1.8288
-0.115205 -0.13636 1.82291
-0.236709 -0.07333 1.81163
-0.179255 -0.0766701 1.80706
-0.130905 -0.0823101 1.81539
-0.112215 -0.0831801 1.81097
-0.146435 -0.07215 1.79874
-0.128325 -0.0778501 1.79678
-0.144545 -0.10015 1.79843
-0.157725 -0.11444 1.79641
-0.351442 0.00565994 1.79051
-0.257119 0.02139 1.78098
-0.310728 -0.0206801 1.79494
-0.302355 -0.04199 1.78642
-0.258745 -0.0438801 1.78183
-0.283428 0.02633 1.75715
-0.27766 0.00838995 1.75936
-0.279824 -0.0531501 1.75885
-0.244432 -0.03724 1.75904
-0.259243 -0.0138601 1.75586
-0.27504 -0.0293901 1.7443
-0.250638 -0.0483201 1.74804
-0.289935 -0.09719 1.79146
-0.245921 -0.07113 1.7888
-0.277369 -0.0972201 1.77902
-0.262311 -0.0826501 1.7758
-0.242349 -0.09376 1.76981
-0.298591 -0.11209 1.78419
-0.286964 -0.12594 1.7852
-0.249102 -0.14155 1.78944
-0.374064 -0.14955 1.75175
-0.38864 -0.14137 1.745
-0.308424 -0.06631 1.76898
-0.27663 -0.0705601 1.76528
-0.243617 -0.06657 1.74844
-0.27554 -0.11314 1.76293
-0.178505 -0.00534999 1.79098
-0.2208 -0.0402601 1.79147
-0.159725 -0.02592 1.78516
-0.1824 -0.04032 1.79137
-0.205692 -0.0218101 1.77144
-0.187668 -0.06057 1.77473
-0.122115 0.0316399 1.78718
-0.106615 0.02517 1.78966
-0.0884351 0.0129499 1.7944
-0.092505 -0.000150084 1.77872
-0.135875 -0.0536801 1.79288
-0.098235 -0.05522 1.78635
-0.103485 -0.0274301 1.77632
-0.0865049 -0.03479 1.78209
-0.112355 -0.04986 1.77539
-0.086435 -0.0552001 1.77116
-0.178405 0.00699997 1.76958
-0.160635 0.0143 1.75457
-0.180785 0.00914991 1.751
-0.172255 -0.01799 1.76581
-0.182666 -0.0349301 1.7579
-0.202937 -0.01413 1.75416
-0.219685 -0.05865 1.75359
-0.166625 -0.0523601 1.75515
-0.131665 0.0186299 1.76204
-0.141175 0.0211099 1.74377
-0.135415 0.00173998 1.74491
-0.120435 -0.0278801 1.75744
-0.143815 -0.03609 1.75476
-0.165545 -0.07181 1.78019
-0.212714 -0.14772 1.78308
-0.106665 -0.0708201 1.79099
-0.082685 -0.06243 1.7891
-0.134805 -0.0630701 1.77075
-0.180205 -0.0754801 1.76547
-0.033475 0.199096 1.84341
-0.049945 0.182503 1.83342
-0.034035 0.187195 1.82977
-0.015545 0.170414 1.84437
-0.032905 0.163664 1.83833
-0.021495 0.149205 1.84533
-0.065025 0.157383 1.828
-0.049735 0.127667 1.8348
-0.036815 0.139207 1.83506
-0.0452549 0.163392 1.81965
-0.029775 0.0712899 1.82463
-0.065555 0.122348 1.81974
-0.052545 0.11097 1.81533
-0.0793051 0.11692 1.79929
-0.0288349 0.06045 1.80355
-0.081665 0.159602 1.78606
-0.049395 0.15872 1.76789
-0.039435 0.141917 1.75861
0.00654495 0.20471 1.7601
0.058135 0.191014 1.76913
0.012985 0.163249 1.76515
0.00197506 0.145647 1.7563
-0.049825 0.08382 1.79193
-0.074245 0.0709599 1.78441
-0.053625 0.04713 1.78673
-0.010035 0.0506099 1.77644
-0.045905 0.0933599 1.75784
0.188305 0.215255 1.78648
0.121755 0.211871 1.75529
0.075865 0.07058 1.78497
0.157275 0.0977299 1.77166
0.081405 0.0482999 1.76207
-0.074795 -0.04801 1.84481
-0.024695 -0.0246301 1.84736
-0.060635 -0.0544701 1.82993
-0.080085 -0.05303 1.82847
-0.042625 -0.0403701 1.83022
-0.023635 -0.0479701 1.82702
0.035835 -0.0329101 1.82821
-0.0544749 -0.0119901 1.81569
-0.079175 -0.018 1.799
-0.0661449 -0.05094 1.80344
0.017575 -0.0150901 1.81727
-0.051025 -0.0747601 1.8416
-0.032915 -0.08559 1.84809
-0.066985 -0.07926 1.82592
-0.035845 -0.0840601 1.828
-0.050325 -0.07068 1.81153
-0.0302351 -0.06305 1.80986
-0.076345 -0.0861701 1.80478
0.000545025 -0.1358 1.80639
0.046905 -0.14213 1.8
0.114985 -0.0120701 1.83187
0.100985 -0.0322901 1.83284
0.193745 -0.11268 1.84564
-0.0552649 0.02281 1.7945
-0.025105 -0.0551001 1.77975
-0.044755 -0.00134003 1.76724
-0.052785 0.0195099 1.74842
-0.019255 0.0182899 1.74616
-0.075295 -0.02283 1.75846
-0.0492949 -0.0499401 1.75908
0.018815 -0.0577501 1.74664
0.043795 -0.12521 1.79164
0.067415 -0.11243 1.77336
0.039235 -0.13904 1.7783
-0.065775 -0.08709 1.75051
-0.036875 -0.08216 1.74806
-0.005355 -0.11434 1.75179
0.057385 -0.07049 1.75745
0.036345 -0.10596 1.76286
0.011915 -0.08341 1.74628
0.040305 -0.06833 1.74464
0.055765 -0.10315 1.75063
0.037185 -0.08508 1.74714
0.013185 -0.11863 1.76971
0.0306849 -0.12471 1.75752
0.073285 -0.12887 1.76751
0.053725 -0.11764 1.76204
0.040655 -0.15053 1.75972
0.065605 -0.12955 1.74391
0.0917751 0.0268699 1.79551
0.205945 0.0210799 1.76848
0.083975 -0.11719 1.78856
0.084015 -0.13608 1.79066
0.090435 -0.15456 1.78253
0.222675 -0.10842 1.77524
0.0858951 -0.11728 1.75304
0.076645 -0.15491 1.74858
-0.341503 -0.22569 1.91888
-0.3333 -0.23435 1.90609
-0.298276 -0.17133 1.901
-0.311181 -0.21158 1.91558
-0.284499 -0.24035 1.918
-0.274217 -0.24566 1.90242
-0.323387 -0.28021 1.92159
-0.321033 -0.26283 1.90112
-0.303693 -0.29188 1.92113
-0.292549 -0.27825 1.9177
-0.267829 -0.28567 1.92672
-0.302518 -0.26551 1.90155
-0.264434 -0.27474 1.9098
-0.274641 -0.33088 1.91661
-0.294172 -0.29921 1.9089
-0.257865 -0.3037 1.91125
-0.274235 -0.30425 1.90497
-0.203833 -0.16205 1.94166
-0.337254 -0.18838 1.89105
-0.346121 -0.1767 1.87656
-0.323434 -0.16652 1.88039
-0.349189 -0.2254 1.89662
-0.329453 -0.20828 1.88784
-0.338632 -0.24395 1.88344
-0.289822 -0.17203 1.87824
-0.291497 -0.20999 1.8968
-0.309445 -0.23493 1.8962
-0.284516 -0.23206 1.89374
-0.281173 -0.20892 1.88129
-0.281001 -0.23661 1.87646
-0.336486 -0.16629 1.86173
-0.317753 -0.1967 1.85338
-0.271414 -0.16512 1.8684
-0.28026 -0.1708 1.85076
-0.276984 -0.2212 1.86585
-0.293731 -0.22577 1.86811
-0.292688 -0.24185 1.86232
-0.267036 -0.20216 1.86569
-0.250731 -0.22703 1.87307
-0.302408 -0.21303 1.86111
-0.242842 -0.23632 1.85703
-0.307354 -0.2581 1.88637
-0.261519 -0.25057 1.88756
-0.269509 -0.33335 1.89827
-0.225018 -0.22213 1.89303
0.090885 -0.16418 1.94501
0.203495 -0.26384 1.93809
0.081495 -0.15921 1.85405
-0.336605 -0.16872 1.84257
-0.301764 -0.15715 1.82704
-0.282611 -0.17683 1.82808
-0.295955 -0.19091 1.8341
-0.302009 -0.2113 1.83574
-0.375917 -0.16349 1.8011
-0.30339 -0.16678 1.81108
-0.207157 -0.17397 1.82112
-0.234236 -0.25789 1.79895
-0.391231 -0.19831 1.75671
-0.383869 -0.17522 1.75507
-0.343369 -0.20481 1.74407
-0.144965 -0.17597 1.74882
0.056365 -0.19265 1.81101
0.037495 -0.1748 1.80534
0.057495 -0.15569 1.76253
0.0743951 -0.15643 1.76521
0.091805 -0.17332 1.76562
-0.742405 0.211831 1.74209
-0.843808 0.18414 1.70014
-0.783053 0.142523 1.70778
-0.794338 0.148057 1.69162
-0.767467 0.180319 1.70846
-0.719375 0.209189 1.704
-0.710112 0.180712 1.69168
-0.749109 0.158529 1.70187
-0.725732 0.07286 1.74202
-0.786164 0.132082 1.68509
-0.784003 0.151885 1.66731
-0.809317 0.143352 1.66696
-0.744061 0.202126 1.68997
-0.742506 0.176268 1.68513
-0.782684 0.175194 1.65035
-0.814533 0.132492 1.6539
-0.795867 0.131092 1.64267
-0.745754 0.182138 1.65401
-0.770051 0.201837 1.64147
-0.777636 0.128652 1.65163
-0.748636 0.140797 1.65103
-0.729007 0.151333 1.63887
-0.810625 0.122402 1.68298
-0.792303 0.11391 1.6817
-0.80503 0.094 1.69002
-0.804864 0.0991499 1.66884
-0.811535 0.0717599 1.67557
-0.762014 0.11512 1.67834
-0.753986 0.0885199 1.6763
-0.769295 0.0804 1.66507
-0.730686 0.124555 1.67675
-0.811344 0.11828 1.66358
-0.788426 0.0972899 1.64905
-0.772485 0.10711 1.65563
-0.743597 0.124485 1.65332
-0.75448 0.1085 1.65674
-0.753643 0.08977 1.65841
-0.716706 0.124735 1.6631
-0.755554 0.0961299 1.64096
-0.717135 0.10964 1.64829
-0.735822 0.08697 1.64508
-0.73514 0.0749999 1.66043
-0.744449 0.06555 1.64726
-0.70541 0.0715599 1.64286
-0.823109 0.02985 1.6969
-0.766601 -0.11655 1.7353
-0.718403 0.0288399 1.68224
-0.774874 -0.12019 1.67436
-0.778 -0.11033 1.65983
-0.653069 0.199154 1.69372
-0.658157 0.133261 1.69688
-0.691413 0.09392 1.72875
-0.395785 0.174796 1.72958
-0.699342 0.132562 1.67924
-0.66453 0.145695 1.64674
-0.626015 0.182417 1.6451
-0.590014 0.142224 1.65897
-0.61039 0.140686 1.6564
-0.556819 0.12736 1.66383
-0.589349 0.13431 1.64317
-0.577421 0.168722 1.64403
-0.620866 0.118614 1.66984
-0.58585 0.11353 1.66667
-0.57792 0.09269 1.67024
-0.553011 0.08585 1.66516
-0.586171 0.0759599 1.66753
-0.689296 0.10045 1.66012
-0.635377 0.09998 1.65794
-0.658251 0.0999999 1.63882
-0.63731 0.0722899 1.64161
-0.565163 0.11316 1.65742
-0.601568 0.0989599 1.64726
-0.5521 0.12419 1.64527
-0.557316 0.0922799 1.643
-0.624597 0.06915 1.66484
-0.586189 0.0668 1.64719
-0.561888 0.0515499 1.64572
-0.518343 0.129687 1.66141
-0.522309 0.11262 1.65819
-0.523449 0.10641 1.63948
-0.538875 0.0964199 1.6412
-0.538623 0.07971 1.64777
-0.406795 -0.15168 1.74108
-0.398473 -0.13445 1.72665
-0.395003 -0.15225 1.71887
-0.463539 0.0306 1.66004
-0.805926 0.172035 1.6271
-0.755393 0.135517 1.6315
-0.737695 0.134958 1.62756
-0.759421 0.155349 1.61952
-0.715324 0.173673 1.62563
-0.729516 0.153129 1.61449
-0.744616 0.202189 1.60819
-0.771157 0.194882 1.58702
-0.751358 0.142197 1.60473
-0.71569 0.155648 1.60073
-0.709866 0.13232 1.59029
-0.753703 0.117736 1.63772
-0.708807 0.119502 1.63313
-0.709939 0.11284 1.61731
-0.721913 0.08391 1.61977
-0.70744 0.0724399 1.62593
-0.721553 0.0453899 1.6238
-0.759231 0.119624 1.60941
-0.733352 0.123267 1.60223
-0.727318 0.10032 1.6077
-0.74382 0.0722799 1.60305
-0.712486 0.0434699 1.60279
-0.722042 0.142561 1.57494
-0.714678 0.1542 1.56287
-0.704067 0.131342 1.56841
-0.756632 0.150892 1.55812
-0.705481 0.139822 1.55139
-0.704838 0.07144 1.57049
-0.667364 0.180343 1.63854
-0.640532 0.214411 1.62004
-0.628045 0.145374 1.63096
-0.666761 0.165702 1.6205
-0.696839 0.127665 1.61403
-0.596267 0.163754 1.62943
-0.563914 0.139107 1.63807
-0.572132 0.128037 1.62084
-0.661036 0.186726 1.60266
-0.665848 0.210755 1.59216
-0.644401 0.196608 1.58994
-0.673009 0.152568 1.60182
-0.687469 0.133762 1.59984
-0.632412 0.140305 1.61059
-0.684739 0.161896 1.59266
-0.644183 0.170268 1.58771
-0.637118 0.139667 1.59127
-0.611734 0.197843 1.59476
-0.549313 0.201676 1.59477
-0.606879 0.152841 1.6119
-0.605656 0.168098 1.60432
-0.598088 0.152089 1.59586
-0.618145 0.153999 1.59118
-0.554777 0.162818 1.58856
-0.694208 0.0988799 1.6214
-0.670694 0.0758599 1.62894
-0.696234 0.04398 1.62593
-0.673005 0.0482999 1.61971
-0.569056 0.120947 1.63786
-0.552883 0.08925 1.62661
-0.548585 0.1077 1.61989
-0.567696 0.09986 1.61874
-0.562773 0.07453 1.63679
-0.584601 0.0715699 1.62833
-0.573947 0.0526299 1.63176
-0.685824 0.11377 1.60778
-0.669414 0.09566 1.61237
-0.685482 0.0958999 1.60394
-0.66922 0.10882 1.59725
-0.694989 0.0948499 1.58812
-0.668611 0.08751 1.59277
-0.639725 0.0819299 1.59182
-0.696432 0.07005 1.60849
-0.681802 0.0605999 1.60949
-0.554715 0.117452 1.60435
-0.571725 0.0783399 1.61229
-0.521015 0.142853 1.63507
-0.530815 0.150961 1.61496
-0.518751 0.130609 1.62364
-0.542129 0.133173 1.6164
-0.494183 0.154428 1.6175
-0.451833 0.144538 1.62741
-0.523124 0.180613 1.60874
-0.482729 0.129135 1.60827
-0.474452 0.157964 1.58946
-0.490328 0.13028 1.59244
-0.434715 0.151831 1.60978
-0.448596 0.137078 1.60608
-0.464777 0.137643 1.59585
-0.518514 0.11258 1.61385
-0.487891 0.117977 1.62074
-0.502396 0.0810599 1.62438
-0.502236 0.06099 1.63186
-0.54056 0.07882 1.61401
-0.530999 0.03508 1.62177
-0.504155 0.0444299 1.61402
-0.534659 0.11574 1.60692
-0.508304 0.0956199 1.60924
-0.519938 0.10388 1.58936
-0.497431 0.0901799 1.58725
-0.522259 0.0796399 1.60436
-0.493916 0.0695599 1.61113
-0.474659 0.0579699 1.60326
-0.512265 0.04747 1.59099
-0.461111 0.04159 1.59437
-0.679925 0.201676 1.58179
-0.631172 0.214437 1.56733
-0.630404 0.177776 1.57196
-0.668526 0.161128 1.57812
-0.685548 0.127365 1.58382
-0.671809 0.145791 1.56259
-0.627273 0.156863 1.57026
-0.613739 0.144728 1.57328
-0.585641 0.169991 1.58338
-0.601809 0.129331 1.56564
-0.582469 0.15894 1.57056
-0.691818 0.149791 1.5569
-0.646746 0.15818 1.55123
-0.669384 0.156318 1.54551
-0.631044 0.16285 1.54286
-0.649105 0.134382 1.53575
-0.578842 0.214635 1.55857
-0.623091 0.129715 1.55655
-0.628251 0.121014 1.58424
-0.685087 0.0855 1.56746
-0.670653 0.0965199 1.56516
-0.641111 0.125427 1.57209
-0.686011 0.06984 1.58632
-0.65878 0.0755099 1.57183
-0.655024 0.04571 1.56605
-0.621704 0.1162 1.56726
-0.610886 0.07611 1.56528
-0.656759 0.123816 1.55695
-0.635985 0.1019 1.55032
-0.635547 0.11282 1.53649
-0.663488 0.0927399 1.54336
-0.648652 0.10052 1.53522
-0.62903 0.0812399 1.53868
-0.683583 0.0677299 1.54863
-0.635872 0.06441 1.55033
-0.608134 0.11679 1.53716
-0.60341 0.07502 1.53406
-0.513674 0.132445 1.57726
-0.497188 0.163466 1.57659
-0.476582 0.15202 1.56115
-0.476875 0.139354 1.57322
-0.493584 0.149898 1.56465
-0.502449 0.135934 1.56162
-0.456504 0.138419 1.58084
-0.487435 0.128984 1.55398
-0.51096 0.139729 1.53648
-0.488289 0.141156 1.53453
-0.457609 0.141333 1.55627
-0.420981 0.145921 1.55353
-0.452847 0.154893 1.5428
-0.43555 0.130674 1.54211
-0.414227 0.13162 1.53839
-0.533127 0.11452 1.58581
-0.511214 0.0886899 1.57635
-0.497681 0.10695 1.5839
-0.486367 0.0802499 1.57393
-0.482916 0.10492 1.56689
-0.50678 0.10497 1.56304
-0.483563 0.0589199 1.57509
-0.455099 0.10658 1.58371
-0.464078 0.126961 1.56861
-0.464056 0.10513 1.56177
-0.413009 0.0942199 1.56904
-0.5136 0.091 1.55487
-0.486044 0.08462 1.54968
-0.475115 0.0985199 1.54657
-0.488414 0.0639199 1.55162
-0.436773 0.0888 1.53707
-0.424313 0.1053 1.54571
-0.424953 0.0812 1.5463
-0.461547 0.0736099 1.53439
-0.628493 0.0185499 1.60604
-0.446801 -0.14092 1.63624
-0.708609 -0.33789 1.67157
-0.715236 -0.4181 1.72613
-0.734294 -0.42933 1.72365
-0.704825 -0.43109 1.71903
-0.748931 -0.40643 1.7093
-0.745877 -0.42417 1.70521
-0.7267 -0.40807 1.70743
-0.718781 -0.39101 1.70591
-0.705216 -0.40363 1.70985
-0.770346 -0.40539 1.6941
-0.7599 -0.42929 1.69392
-0.70559 -0.39339 1.69185
-0.706754 -0.4285 1.69979
-0.714797 -0.44759 1.73488
-0.742451 -0.44677 1.72835
-0.739634 -0.44105 1.70688
-0.709925 -0.44454 1.70865
-0.716208 -0.38442 1.68043
-0.705382 -0.41137 1.69093
-0.439724 -0.15996 1.74018
-0.442109 -0.18927 1.74012
-0.417413 -0.17149 1.73709
-0.401605 -0.18779 1.73533
-0.680602 -0.33515 1.6848
-0.668681 -0.32939 1.67075
-0.607517 -0.33481 1.68093
-0.632349 -0.2742 1.65648
-0.653316 -0.27636 1.64575
-0.663428 -0.31073 1.65436
-0.630406 -0.31829 1.63966
-0.649849 -0.34241 1.65076
-0.652129 -0.3246 1.64522
-0.595314 -0.26541 1.64666
-0.612286 -0.26926 1.63927
-0.602713 -0.29381 1.64379
-0.566609 -0.33743 1.66046
-0.590378 -0.33617 1.65134
-0.58449 -0.30454 1.64501
-0.506147 -0.231 1.64338
-0.529467 -0.3109 1.66995
-0.496664 -0.29424 1.64949
-0.517129 -0.33707 1.65696
-0.540364 -0.33589 1.64553
-0.439981 -0.32032 1.66437
-0.432823 -0.33577 1.65104
-0.690145 -0.41256 1.71874
-0.695741 -0.3567 1.69867
-0.691492 -0.38346 1.69435
-0.684083 -0.40014 1.70504
-0.662998 -0.43509 1.70645
-0.631858 -0.43051 1.70547
-0.664812 -0.41356 1.69553
-0.650192 -0.40592 1.69205
-0.64706 -0.43431 1.6926
-0.601405 -0.37722 1.69944
-0.593713 -0.40442 1.69816
-0.687693 -0.45591 1.72896
-0.671524 -0.44865 1.6982
-0.540137 -0.40107 1.71369
-0.527072 -0.45099 1.73327
-0.680518 -0.36648 1.68561
-0.671162 -0.38926 1.67967
-0.655258 -0.35375 1.67984
-0.694355 -0.39187 1.67157
-0.65003 -0.39874 1.67504
-0.615805 -0.38599 1.68858
-0.586806 -0.38557 1.68716
-0.560192 -0.39693 1.67845
-0.56497 -0.41921 1.68559
-0.585604 -0.41583 1.68087
-0.669137 -0.35281 1.65507
-0.669434 -0.37243 1.66421
-0.652889 -0.36171 1.65417
-0.633252 -0.38552 1.65524
-0.627154 -0.36621 1.65115
-0.550838 -0.37524 1.65552
-0.609514 -0.38365 1.64229
-0.591032 -0.38697 1.644
-0.60465 -0.414 1.65453
-0.555371 -0.41243 1.65955
-0.579237 -0.40785 1.64156
-0.586706 -0.42096 1.65109
-0.668144 -0.43968 1.67786
-0.557373 -0.45354 1.66858
-0.53918 -0.38146 1.66621
-0.517666 -0.38914 1.66507
-0.53819 -0.39372 1.68345
-0.521146 -0.41039 1.67676
-0.404283 -0.41188 1.68399
-0.498761 -0.38512 1.65926
-0.522633 -0.38605 1.64708
-0.52162 -0.40771 1.65889
-0.542154 -0.40022 1.65726
-0.545394 -0.41665 1.64298
-0.50691 -0.39252 1.64566
-0.440888 -0.35868 1.65741
-0.761143 -0.2313 1.58778
-0.793837 -0.20708 1.57595
-0.852276 -0.4004 1.57957
-0.587173 -0.2063 1.61922
-0.54849 -0.24013 1.59986
-0.580591 -0.23436 1.5911
-0.551309 -0.22637 1.58824
-0.679158 -0.2698 1.63604
-0.609909 -0.29515 1.62865
-0.581857 -0.27244 1.63521
-0.614122 -0.25012 1.62057
-0.593646 -0.24916 1.62078
-0.616558 -0.27967 1.62157
-0.557338 -0.27707 1.61348
-0.614899 -0.31866 1.63148
-0.59668 -0.32097 1.63555
-0.580979 -0.33722 1.63208
-0.551875 -0.34002 1.62794
-0.578229 -0.30492 1.6203
-0.558137 -0.30057 1.62472
-0.594477 -0.28073 1.60831
-0.579776 -0.2555 1.60068
-0.554786 -0.25828 1.59755
-0.579151 -0.27635 1.58932
-0.551842 -0.27323 1.58821
-0.580729 -0.30913 1.60161
-0.570264 -0.33306 1.60904
-0.550133 -0.32082 1.61106
-0.553169 -0.33985 1.61034
-0.559205 -0.33331 1.59577
-0.489597 -0.2449 1.61415
-0.438858 -0.17288 1.616
-0.473054 -0.15902 1.59094
-0.528658 -0.2223 1.6114
-0.52914 -0.24012 1.60149
-0.503677 -0.23168 1.60961
-0.454343 -0.18618 1.60323
-0.469551 -0.19743 1.59645
-0.467129 -0.23914 1.60525
-0.453777 -0.20475 1.59584
-0.46714 -0.21977 1.59649
-0.504411 -0.25753 1.62576
-0.522472 -0.25109 1.61906
-0.540857 -0.27641 1.62473
-0.53834 -0.31456 1.62433
-0.513145 -0.29878 1.61654
-0.528687 -0.32812 1.61384
-0.475562 -0.29827 1.61612
-0.445769 -0.30096 1.63181
-0.444915 -0.32008 1.62635
-0.452399 -0.33856 1.61636
-0.539815 -0.26995 1.60585
-0.513358 -0.26713 1.60435
-0.497514 -0.27381 1.60285
-0.534135 -0.25926 1.58908
-0.512039 -0.28322 1.58984
-0.498952 -0.31068 1.60522
-0.537435 -0.33226 1.59066
-0.501344 -0.34223 1.59069
-0.481467 -0.33097 1.59187
-0.434337 -0.29489 1.6102
-0.441672 -0.27518 1.58664
-0.442795 -0.31199 1.61151
-0.43372 -0.32897 1.59999
-0.411405 -0.33202 1.61177
-0.434545 -0.30778 1.58791
-0.420764 -0.30049 1.59816
-0.582867 -0.3343 1.5849
-0.552364 -0.33309 1.58029
-0.521605 -0.23228 1.57573
-0.475606 -0.21307 1.58015
-0.495251 -0.23476 1.58632
-0.530855 -0.24592 1.56285
-0.509182 -0.2075 1.572
-0.486845 -0.22226 1.56966
-0.50511 -0.24457 1.5724
-0.461909 -0.20753 1.57147
-0.449326 -0.22131 1.56484
-0.469382 -0.22854 1.56187
-0.528721 -0.2022 1.55872
-0.531014 -0.22786 1.55133
-0.509879 -0.23133 1.55057
-0.501184 -0.21628 1.55153
-0.521894 -0.24062 1.53843
-0.431808 -0.19303 1.5524
-0.44824 -0.18363 1.54473
-0.445695 -0.24048 1.54538
-0.402731 -0.23214 1.53408
-0.529003 -0.29076 1.57699
-0.480534 -0.27188 1.58292
-0.498584 -0.28933 1.57762
-0.48118 -0.28939 1.57609
-0.477676 -0.25822 1.56918
-0.482809 -0.3154 1.56941
-0.507829 -0.3044 1.56028
-0.409722 -0.27066 1.56867
-0.398584 -0.29001 1.56977
-0.459517 -0.30244 1.57813
-0.432233 -0.32584 1.57836
-0.43685 -0.30683 1.56912
-0.454608 -0.33108 1.5608
-0.515792 -0.25949 1.5492
-0.527737 -0.2835 1.55776
-0.492001 -0.24997 1.54038
-0.471176 -0.31308 1.55431
-0.478113 -0.30082 1.54394
-0.45005 -0.25952 1.55552
-0.454922 -0.28952 1.55814
-0.421168 -0.27959 1.5512
-0.443829 -0.26721 1.53874
-0.434247 -0.28991 1.54557
-0.429386 -0.25858 1.53974
-0.432055 -0.32211 1.55141
-0.425635 -0.29765 1.55824
-0.631329 -0.34898 1.63481
-0.631768 -0.36416 1.62278
-0.626297 -0.3895 1.61597
-0.603316 -0.35466 1.63467
-0.582807 -0.37734 1.62898
-0.562105 -0.38776 1.62918
-0.609979 -0.38682 1.62391
-0.555184 -0.35944 1.6186
-0.571676 -0.37185 1.61385
-0.598091 -0.4011 1.62021
-0.55411 -0.41045 1.61957
-0.584893 -0.36 1.60015
-0.554714 -0.35214 1.59599
-0.566355 -0.39667 1.61034
-0.540135 -0.37857 1.6308
-0.484195 -0.38848 1.63535
-0.52215 -0.37497 1.62109
-0.500478 -0.37527 1.62309
-0.534293 -0.40087 1.63334
-0.53613 -0.41298 1.6148
-0.523526 -0.39767 1.61619
-0.521457 -0.35888 1.60013
-0.502999 -0.37533 1.6015
-0.539125 -0.36888 1.59428
-0.485361 -0.36677 1.58954
-0.458565 -0.36836 1.60745
-0.440496 -0.3783 1.60169
-0.449164 -0.35085 1.58743
-0.420195 -0.34983 1.59067
-0.417331 -0.35364 1.5735
-0.43084 -0.37636 1.58213
-0.454421 -0.34543 1.5717
-0.388833 0.198938 1.73785
-0.378466 0.209373 1.72135
-0.354312 0.206359 1.72009
-0.373231 0.183402 1.72251
-0.341762 0.132257 1.72262
-0.312224 0.201731 1.71833
-0.269492 0.177574 1.71858
-0.308593 0.165442 1.73963
-0.371697 0.200254 1.7085
-0.328913 0.206991 1.70533
-0.373847 0.175014 1.69506
-0.354655 0.169083 1.71729
-0.38296 0.143677 1.70474
-0.337647 0.169079 1.69157
-0.340687 0.128173 1.69842
-0.309393 0.204363 1.69443
-0.312293 0.130037 1.71439
-0.287432 0.138697 1.71223
-0.360099 0.10879 1.72183
-0.33457 0.11646 1.71876
-0.258963 0.0432999 1.7306
-0.280449 0.06633 1.72962
-0.364998 0.11374 1.70517
-0.327755 0.10689 1.6963
-0.240926 0.07137 1.7138
-0.160145 0.210347 1.693
-0.168915 0.190191 1.69598
-0.121295 0.191248 1.71629
-0.104705 0.206088 1.69886
-0.082885 0.209844 1.70351
-0.096195 0.168707 1.70153
-0.212614 0.120925 1.72031
-0.161885 0.10121 1.71913
-0.199648 0.07275 1.7306
-0.140725 0.09249 1.72494
-0.110425 0.07418 1.73887
-0.091645 0.0569199 1.74193
-0.096555 0.03317 1.73415
-0.191724 0.0892099 1.69884
-0.161725 0.0609499 1.71326
-0.191279 0.0543599 1.71594
-0.198204 0.0605099 1.69771
-0.183589 0.0508499 1.69868
-0.336187 0.180742 1.67915
-0.372329 0.158391 1.69019
-0.37481 0.140008 1.68178
-0.33337 0.164843 1.67237
-0.272992 0.181888 1.67599
-0.310825 0.157807 1.68339
-0.245226 0.157176 1.68029
-0.277166 0.164092 1.67707
-0.358974 0.194208 1.65952
-0.377902 0.167587 1.64833
-0.325542 0.159264 1.6468
-0.307366 0.176235 1.66359
-0.283484 0.139851 1.66401
-0.300108 0.12806 1.64129
-0.271271 0.155637 1.65023
-0.35693 0.11054 1.68601
-0.352487 0.0898999 1.68473
-0.318266 0.117506 1.67641
-0.31657 0.0987099 1.67712
-0.287474 0.122146 1.68446
-0.302741 0.0811199 1.67206
-0.248819 0.0578599 1.69107
-0.324668 0.120855 1.64797
-0.326907 0.09899 1.64813
-0.342179 0.10248 1.63902
-0.310554 0.10907 1.65455
-0.291013 0.0851599 1.64536
-0.310443 0.0880899 1.64527
-0.086585 0.209722 1.68629
-0.120615 0.188003 1.69025
-0.140705 0.208747 1.67763
-0.106245 0.206763 1.67237
-0.120005 0.190546 1.66791
-0.099385 0.188078 1.66573
-0.127405 0.165597 1.67953
-0.141785 0.147072 1.66586
-0.168245 0.179427 1.64272
-0.235805 0.153697 1.64073
-0.212517 0.167832 1.64492
-0.137725 0.196969 1.66046
-0.104765 0.176012 1.65351
-0.141335 0.187357 1.64306
-0.100415 0.191983 1.64827
-0.117415 0.190679 1.639
-0.157055 0.16919 1.66366
-0.127355 0.157784 1.66316
-0.102015 0.145011 1.65939
-0.143395 0.160068 1.64406
-0.126555 0.154663 1.64401
-0.119255 0.17292 1.63929
-0.205005 0.0782199 1.68751
-0.217333 0.0644799 1.68976
-0.231335 0.0373199 1.68709
-0.188253 0.07162 1.68499
-0.189194 0.0613099 1.66902
-0.197761 0.0457499 1.67588
-0.093555 0.0779899 1.68979
-0.0849349 0.05188 1.66535
-0.186033 0.08398 1.66027
-0.202558 0.1071 1.65102
-0.183346 0.06847 1.6523
-0.120375 0.11596 1.65195
-0.139265 0.11919 1.64072
-0.082285 0.0410999 1.64235
-0.280869 0.0149299 1.74319
-0.260958 0.01025 1.73875
-0.267267 -0.01301 1.73736
-0.253534 -0.03681 1.73602
-0.267989 -0.04664 1.74243
-0.276786 0.0213499 1.71727
-0.241909 0.0240699 1.70017
-0.37085 -0.12879 1.74243
-0.376143 -0.15359 1.72323
-0.354784 -0.0950401 1.71218
-0.368723 -0.11113 1.70816
-0.368089 -0.13935 1.70836
-0.353244 -0.12948 1.71642
-0.351656 -0.13715 1.69279
-0.279611 -0.13761 1.71094
-0.257948 -0.13306 1.70617
-0.314895 -0.11566 1.69194
-0.284269 -0.15132 1.69581
-0.184711 -0.00324011 1.73727
-0.166005 -0.01232 1.73117
-0.213936 -0.01011 1.72878
-0.192545 0.00184989 1.72126
-0.236467 -0.05688 1.7361
-0.150515 0.0190899 1.72483
-0.140335 0.00146997 1.72717
-0.221225 0.01262 1.70625
-0.232492 -0.01247 1.70989
-0.178905 0.0103899 1.71543
-0.223757 -0.00195003 1.69826
-0.164205 0.02218 1.69895
-0.205529 -0.04311 1.69527
-0.198061 -0.0153201 1.70211
-0.085815 -0.0495801 1.69851
-0.199396 -0.10694 1.72297
-0.281655 -0.0550801 1.68401
-0.302137 -0.0608001 1.67549
-0.308903 -0.04617 1.66082
-0.281221 -0.0567001 1.65847
-0.292355 -0.05961 1.64167
-0.264205 -0.0186601 1.6509
-0.262985 -0.03575 1.64338
-0.341819 -0.09735 1.69103
-0.316507 -0.08411 1.67571
-0.320618 -0.13938 1.68187
-0.327727 -0.1251 1.6721
-0.347068 -0.1216 1.6682
-0.285741 -0.13968 1.68322
-0.284138 -0.12441 1.67416
-0.307807 -0.13338 1.67154
-0.264083 -0.12503 1.67339
-0.266619 -0.14707 1.67376
-0.318461 -0.06919 1.66065
-0.32088 -0.11731 1.65871
-0.288365 -0.0733 1.65671
-0.30074 -0.10012 1.65545
-0.276947 -0.0714 1.64239
-0.258065 -0.0882001 1.64766
-0.264089 -0.10785 1.6476
-0.245798 -0.10032 1.64311
-0.250409 -0.12068 1.64949
-0.215033 0.0102899 1.68772
-0.206083 -0.01836 1.67999
-0.171135 -0.03338 1.68178
-0.097385 -0.03654 1.6786
-0.135735 -0.04812 1.66982
-0.096025 -0.0586201 1.67301
-0.198219 -0.0308701 1.64391
-0.157395 -0.00706005 1.65618
-0.087705 -0.00760007 1.66084
-0.101755 -0.01211 1.64874
-0.117495 0.00934994 1.6388
-0.090595 -0.02897 1.66051
-0.111955 -0.03046 1.65763
-0.085115 -0.04813 1.6579
-0.123275 -0.05682 1.64536
-0.096025 -0.03249 1.64286
-0.188341 -0.0633401 1.68664
-0.205482 -0.0768801 1.65903
-0.211756 -0.0713201 1.64403
-0.222869 -0.10736 1.65124
-0.217262 -0.0887401 1.64375
-0.031395 0.181633 1.72295
-0.00439501 0.135239 1.73944
0.025425 0.141239 1.73805
-0.068875 0.196702 1.71257
0.047575 0.197853 1.6922
-0.046085 0.04064 1.72746
-0.066655 0.10192 1.7001
-0.029775 0.0623599 1.69171
-0.00243497 0.124457 1.71447
0.00938499 0.08452 1.71643
0.009835 0.11227 1.70086
0.0103951 0.07848 1.69349
0.118895 0.199425 1.71769
0.130125 0.189272 1.70279
0.0896651 0.139927 1.69581
0.137655 0.151333 1.69555
0.152895 0.17027 1.69547
0.076295 0.04081 1.74142
0.126965 0.11264 1.69314
0.170695 0.09784 1.69727
-0.00992501 0.217091 1.68512
-0.018705 0.219041 1.63885
-0.0725549 0.146119 1.64186
0.069455 0.152406 1.65261
-0.00682497 0.0919399 1.67338
-0.00820494 0.05527 1.68902
-0.053375 0.06477 1.66693
-0.044675 0.0905499 1.64457
-0.062525 0.0472399 1.64046
-0.00607502 0.0360099 1.64731
0.033965 0.11695 1.65407
0.00975502 0.0843999 1.64521
0.0623651 0.11368 1.63935
0.041795 0.08758 1.63917
0.103835 0.211815 1.6808
0.101995 0.174841 1.68084
0.108805 0.160201 1.6868
0.128175 0.163621 1.68458
0.128505 0.135777 1.68545
0.089985 0.131364 1.66609
0.150365 0.168328 1.67312
0.120645 0.141661 1.66863
0.188205 0.175928 1.67071
0.082325 0.217728 1.65294
0.084705 0.171241 1.65186
0.0930951 0.152219 1.65608
0.111435 0.130584 1.65617
0.079675 0.160196 1.63981
0.106215 0.10897 1.68975
0.113845 0.122189 1.68228
0.130525 0.10802 1.66583
0.142265 0.121274 1.66845
0.141985 0.0391699 1.68016
0.085995 0.125936 1.64561
0.0777251 0.08331 1.64639
0.110615 0.08776 1.64577
0.129785 0.11665 1.64629
0.084825 0.0673599 1.6388
0.179905 0.10574 1.66234
-0.058125 0.00402999 1.74226
-0.078005 0.0180399 1.73042
0.013155 0.0225199 1.73517
0.012965 -0.02616 1.73872
0.011975 -0.06034 1.71785
0.0410351 -0.04479 1.72647
-0.076535 0.01138 1.715
-0.00757504 -0.00435007 1.70102
-0.0558749 -0.0357701 1.70841
-0.031495 -0.0417401 1.70605
-0.010155 -0.0573801 1.70876
-0.075295 -0.0267 1.69763
-0.00627494 -0.02967 1.69799
0.00523496 -0.01013 1.7129
0.00161505 -0.0444601 1.70269
-0.076025 -0.10164 1.73106
-0.018195 -0.0940801 1.74025
-0.040665 -0.09508 1.736
-0.018335 -0.08779 1.72217
-0.081805 -0.12172 1.73134
-0.00455499 -0.12045 1.73157
-0.000475049 -0.0974001 1.73978
0.016675 -0.1056 1.73116
0.029175 -0.0694001 1.72839
0.028085 -0.0913301 1.72404
0.012185 -0.1357 1.73856
0.038605 -0.12581 1.73553
0.035055 -0.12045 1.71937
-0.0341049 -0.0841601 1.71584
-0.030265 -0.10521 1.70887
-0.0514849 -0.0643201 1.70398
-0.071505 -0.0643001 1.69697
-0.027615 -0.0698501 1.69247
0.00955498 -0.0751201 1.70929
0.00363505 -0.10412 1.70635
0.024175 -0.10558 1.70618
0.0428849 -0.0960201 1.7153
0.00455499 -0.0871601 1.69258
0.210755 -0.0409801 1.72812
0.110485 -0.04875 1.69164
-0.056005 0.00735998 1.68094
-0.022095 -0.0120801 1.68144
-0.043455 -0.00607002 1.67197
-0.044875 -0.0309501 1.6838
-0.020955 -0.0351501 1.68381
-0.012115 -0.05945 1.67931
-0.064755 -0.0538001 1.66621
-0.030555 -0.0353601 1.66807
-0.060755 0.0254799 1.66006
-0.0337549 0.01937 1.66209
-0.032575 0.00193989 1.65449
-0.045895 -0.00583005 1.64605
-0.066185 2.99215e-05 1.64408
-0.066595 -0.0242201 1.66053
-0.037515 -0.02063 1.65948
-0.041095 -0.03731 1.65286
-0.052685 -0.0239201 1.6409
-0.016855 -0.01659 1.64771
0.066485 0.01817 1.64264
-0.063575 -0.06823 1.68183
-0.010275 -0.0773801 1.69077
-0.036075 -0.07498 1.67829
-0.0393749 -0.10103 1.6821
-0.044155 -0.0615901 1.66839
-0.00844502 -0.0804801 1.66964
-0.00797498 -0.06092 1.64558
0.076385 -0.02713 1.68531
-0.320079 0.127884 1.63281
-0.319995 0.135286 1.61759
-0.287576 0.157149 1.63866
-0.268838 0.148347 1.63455
-0.273866 0.136233 1.62172
-0.357116 0.164497 1.60089
-0.380453 0.134208 1.59154
-0.292489 0.141507 1.60911
-0.301678 0.131287 1.59393
-0.255129 0.134515 1.59554
-0.296463 0.10515 1.63731
-0.284022 0.11674 1.62681
-0.30041 0.118221 1.61778
-0.28569 0.08346 1.62043
-0.249769 0.118108 1.61888
-0.247684 0.0996 1.62324
-0.270737 0.08547 1.61265
-0.241212 0.0861 1.61395
-0.256203 0.07734 1.62173
-0.285244 0.11375 1.60451
-0.290194 0.0969499 1.60634
-0.263153 0.10664 1.59689
-0.258525 0.04351 1.5871
-0.164605 0.178042 1.62297
-0.181968 0.154594 1.63152
-0.165165 0.155325 1.61399
-0.156175 0.167007 1.63304
-0.121315 0.133559 1.63562
-0.143205 0.171891 1.62092
-0.126055 0.173116 1.6234
-0.154575 0.134481 1.61942
-0.204196 0.192171 1.59289
-0.181947 0.140096 1.60734
-0.163495 0.129612 1.59925
-0.175525 0.13401 1.5878
-0.148735 0.17901 1.58704
-0.152345 0.153472 1.59722
-0.147245 0.135321 1.59906
-0.234778 0.0905 1.63115
-0.177005 0.10884 1.62734
-0.18239 0.08205 1.63365
-0.226887 0.10702 1.6151
-0.199993 0.1014 1.61664
-0.18938 0.07048 1.61355
-0.121845 0.0920399 1.63034
-0.138435 0.125116 1.61811
-0.137495 0.0619799 1.62605
-0.128085 0.04763 1.61475
-0.105585 0.05722 1.62469
-0.096005 0.0346199 1.6254
-0.192977 0.11646 1.59963
-0.162305 0.0937099 1.60715
-0.219839 0.11336 1.59675
-0.227885 0.0864999 1.59373
-0.182868 0.0863299 1.59607
-0.159975 0.09451 1.59035
-0.231056 0.043 1.60386
-0.224606 0.06265 1.59533
-0.223287 0.0416 1.58885
-0.192072 0.03388 1.59634
-0.094505 0.11408 1.60641
-0.116575 0.0646199 1.60566
-0.140325 0.0445499 1.59453
-0.125905 0.0551599 1.59459
-0.125165 0.03678 1.59005
-0.328695 0.136038 1.5616
-0.267247 0.201801 1.57405
-0.244098 0.205948 1.57376
-0.319262 0.197912 1.54076
-0.296229 0.211496 1.55972
-0.307338 0.176129 1.55246
-0.242392 0.217396 1.55703
-0.289426 0.15792 1.55317
-0.348929 0.11546 1.57033
-0.244884 0.0920299 1.58449
-0.307433 0.11321 1.57223
-0.351783 0.11474 1.54312
-0.293647 0.0878999 1.54597
-0.25857 0.117585 1.54673
-0.255112 0.07116 1.55472
-0.169595 0.204384 1.5684
-0.225443 0.132354 1.56362
-0.132345 0.218248 1.56509
-0.152895 0.145183 1.58057
-0.127045 0.166408 1.56686
-0.084825 0.139193 1.564
-0.219698 0.209506 1.54815
-0.173665 0.197732 1.54746
-0.154865 0.204573 1.54242
-0.112645 0.202534 1.53584
-0.130715 0.153136 1.54618
-0.206795 0.119629 1.58446
-0.220929 0.10639 1.57851
-0.190885 0.0976599 1.58489
-0.213728 0.09566 1.56171
-0.175875 0.10846 1.56968
-0.199172 0.0526899 1.57583
-0.178095 0.07329 1.58067
-0.219089 0.07971 1.57139
-0.207719 0.0378599 1.56784
-0.230708 0.0380399 1.56303
-0.19408 0.0766599 1.56958
-0.126475 0.0908699 1.57488
-0.097295 0.117596 1.5704
-0.0990551 0.0984 1.57199
-0.135565 0.0779899 1.58377
-0.153975 0.0472599 1.57536
-0.108165 0.0517199 1.57611
-0.154035 0.0760499 1.56166
-0.164665 0.10639 1.55209
-0.195191 0.0855999 1.54763
-0.200694 0.06311 1.54866
-0.199089 0.0334799 1.55233
-0.182196 0.0357399 1.54999
-0.186482 0.0687599 1.54126
-0.188138 0.0483099 1.53979
-0.122455 0.11499 1.55126
-0.145785 0.0415399 1.55639
-0.122445 0.06653 1.54339
-0.140865 0.0772599 1.53569
-0.106195 0.0523499 1.54485
-0.241811 0.01288 1.63056
-0.24742 -0.00672007 1.61466
-0.259492 -0.0531001 1.62778
-0.248083 -0.0253301 1.61236
-0.246895 -0.0452601 1.60349
-0.246738 -0.01405 1.5921
-0.277386 -0.0890801 1.63732
-0.249626 -0.0747401 1.62589
-0.263185 -0.0661 1.61768
-0.276598 -0.11525 1.63457
-0.283487 -0.13273 1.62562
-0.258706 -0.08841 1.60876
-0.198349 -0.0125 1.63794
-0.207234 -0.02775 1.62629
-0.230914 -0.0481 1.62259
-0.21575 -0.05504 1.61782
-0.190939 -0.01466 1.61953
-0.138325 0.0330199 1.62747
-0.095595 -0.00266004 1.62976
-0.136165 0.0113399 1.62203
-0.128085 0.0268799 1.61348
-0.0859751 0.0162799 1.61993
-0.109625 0.01051 1.61316
-0.112395 -0.00747001 1.62187
-0.120015 -0.01597 1.63578
-0.237453 0.02911 1.61086
-0.232043 0.00992 1.60007
-0.211163 -0.00846004 1.60146
-0.191395 0.00249994 1.60101
-0.225586 0.0192399 1.58768
-0.19776 0.01235 1.58802
-0.171015 0.0228599 1.58729
-0.216424 -0.0319101 1.60965
-0.19903 -0.05346 1.60937
-0.21433 -0.0473901 1.60031
-0.231145 -0.0226201 1.59021
-0.102285 0.0309099 1.60581
-0.228489 -0.0876 1.63095
-0.200746 -0.0945001 1.60968
-0.167275 -0.0805601 1.6077
-0.221797 -0.0820301 1.59096
-0.331649 -0.0662401 1.53774
-0.219758 -0.00840008 1.57864
-0.208326 0.02089 1.56731
-0.203134 -0.01109 1.56362
-0.201628 -0.02074 1.58621
-0.208373 -0.0396301 1.5773
-0.180545 -0.0596 1.57345
-0.113165 0.0260099 1.58046
-0.112835 -0.00545001 1.56268
-0.232695 0.00392997 1.55458
-0.194716 0.01264 1.55368
-0.185074 -0.05382 1.55524
-0.142555 -0.00919008 1.55843
-0.175765 -0.0765101 1.56655
-0.00448501 0.211757 1.62829
-0.068395 0.13028 1.62789
0.035405 0.204433 1.62974
0.00108504 0.200336 1.61582
0.046165 0.151022 1.63137
0.067855 0.171812 1.63008
0.071995 0.132899 1.63258
0.016265 0.128083 1.61385
0.062355 0.160878 1.61781
0.052985 0.128615 1.62523
-0.057375 0.188148 1.60705
-0.022855 0.218408 1.60176
-0.00773501 0.210389 1.60185
0.058975 0.204857 1.59971
0.037125 0.175376 1.59756
0.040755 0.192199 1.59205
0.0704451 0.128403 1.60682
0.042465 0.139401 1.60011
-0.00750494 0.0981499 1.61806
-0.050815 0.0573699 1.63124
0.032755 0.1093 1.63045
0.070055 0.09855 1.62603
0.025705 0.08188 1.61452
0.017385 0.0673599 1.6217
0.00354505 0.0507499 1.61503
-0.00668502 0.11125 1.60403
-0.00852501 0.0701699 1.60258
0.014045 0.10656 1.60741
0.037035 0.10628 1.60111
0.065945 0.10914 1.60501
0.043615 0.0821899 1.60979
0.051615 0.0972799 1.60043
0.00463498 0.10899 1.59013
0.018985 0.09266 1.59838
0.0513051 0.11557 1.59246
0.064785 0.0828799 1.59814
0.053355 0.0454199 1.60097
-0.000164986 0.07663 1.58924
0.026745 0.04448 1.59701
0.072325 0.0498099 1.59102
0.0801851 0.180485 1.61475
0.096885 0.151087 1.62843
0.100105 0.13165 1.62683
0.179365 0.221203 1.61952
0.106385 0.208859 1.6
0.108525 0.181661 1.60156
0.130815 0.209431 1.61141
0.080125 0.201065 1.5917
0.079435 0.1612 1.60224
0.226575 0.163042 1.58769
0.103525 0.11067 1.62811
0.084585 0.122636 1.62337
0.187055 0.045 1.6285
0.084255 0.10169 1.60916
0.206085 0.06045 1.60601
0.210195 0.0418999 1.59042
-0.032905 0.211844 1.5854
-0.0114549 0.19522 1.58268
-0.00549495 0.180786 1.56352
-0.032055 0.152385 1.57132
0.015365 0.192448 1.57328
0.000545025 0.207378 1.56076
0.023325 0.151675 1.57366
0.021965 0.128182 1.58195
0.043975 0.127465 1.58311
0.011575 0.134137 1.56233
0.049385 0.147037 1.56513
0.073065 0.146548 1.56312
-0.051945 0.218644 1.55651
-0.035795 0.187553 1.55701
-0.0503449 0.175169 1.54226
-0.00723505 0.178049 1.54623
-0.061855 0.149136 1.54863
-0.00757504 0.136859 1.55363
-0.052955 0.133554 1.53718
-0.033205 0.16981 1.54655
-0.019685 0.170914 1.53423
0.026945 0.182938 1.55364
0.025465 0.195782 1.54167
0.012495 0.16658 1.54837
-0.022365 0.10869 1.5607
0.017855 0.08215 1.58265
0.062745 0.121953 1.56759
0.0361251 0.124743 1.56125
0.062555 0.0876999 1.57136
0.021005 0.05407 1.57798
0.013245 0.0702399 1.57034
-0.00293505 0.0707799 1.5654
0.0440251 0.06979 1.57096
0.0599051 0.0482099 1.56987
-0.041085 0.127056 1.55354
-0.00567496 0.0988799 1.55065
-0.0480551 0.10779 1.54368
-0.00898504 0.119807 1.53493
0.016155 0.1141 1.55852
0.013195 0.09937 1.54798
0.034145 0.07566 1.54581
0.227615 0.145351 1.57876
0.194475 0.145213 1.56211
0.223025 0.132532 1.55562
0.221605 0.05355 1.58241
0.218405 0.10548 1.53709
-0.072975 0.01577 1.637
-0.077235 0.000419974 1.62916
-0.019575 0.0315599 1.62353
-0.0226049 0.00893998 1.61918
-0.044625 0.0322 1.60863
0.217875 -0.00428009 1.63471
0.143415 -0.0229001 1.58765
0.220905 0.0051899 1.60081
0.222185 -0.02712 1.59807
0.206325 -0.07008 1.61957
0.173285 0.0246799 1.57792
0.226505 0.0226799 1.5801
0.208155 0.03149 1.56714
0.228345 0.00337994 1.56675
0.207115 0.01176 1.5384
-0.375119 -0.1748 1.73109
-0.350448 -0.16995 1.73581
-0.330048 -0.19537 1.73128
-0.355388 -0.16276 1.71263
-0.310771 -0.16501 1.69362
-0.146215 -0.26627 1.72532
-0.384495 -0.18422 1.65207
-0.031875 -0.1707 1.69074
0.030055 -0.16164 1.63964
0.180375 -0.21728 1.65105
-0.379092 -0.15938 1.61366
-0.252886 -0.29368 1.63585
-0.362273 -0.22951 1.56546
-0.33009 -0.18932 1.53722
-0.357929 -0.20564 1.53951
-0.365042 -0.23026 1.53416
-0.345769 -0.22159 1.54432
-0.328765 -0.22054 1.54285
-0.371211 -0.28037 1.57674
-0.392375 -0.2805 1.5525
-0.300314 -0.42999 1.59934
-0.278064 -0.41912 1.5912
-0.288376 -0.46508 1.62006
-0.238522 -0.52914 1.63094
-0.285675 -0.48741 1.61612
-0.26378 -0.50739 1.61484
-0.332503 -0.53103 1.61
-0.243923 -0.46986 1.61083
-0.289233 -0.45318 1.58933
-0.286746 -0.48381 1.59399
-0.251115 -0.50114 1.60101
-0.271934 -0.52884 1.58694
-0.242286 -0.5214 1.58874
-0.169795 -0.42475 1.58648
-0.154495 -0.38626 1.58874
-0.235164 -0.46904 1.63867
-0.227062 -0.47374 1.61299
-0.2291 -0.51213 1.61886
-0.168685 -0.4868 1.62333
-0.188059 -0.52732 1.61858
-0.156055 -0.45306 1.61354
-0.154655 -0.49166 1.61403
-0.155335 -0.51997 1.61991
-0.208638 -0.47707 1.60023
-0.228257 -0.48194 1.58981
-0.1906 -0.44851 1.59106
-0.186971 -0.48856 1.61158
-0.172935 -0.50671 1.60563
-0.192274 -0.50987 1.60625
-0.161115 -0.53019 1.601
-0.184365 -0.49171 1.59161
-0.166575 -0.50667 1.58793
-0.194744 -0.50791 1.58732
-0.153575 -0.4665 1.60365
-0.146055 -0.47069 1.58652
-0.142405 -0.50191 1.60328
-0.142695 -0.51851 1.59875
-0.120965 -0.52989 1.59622
-0.145115 -0.53012 1.58664
-0.272714 -0.37552 1.58522
-0.278958 -0.43595 1.58364
-0.309569 -0.43652 1.57489
-0.271651 -0.40963 1.57374
-0.245633 -0.40348 1.57642
-0.262586 -0.38611 1.54585
-0.272209 -0.43644 1.55963
-0.237634 -0.42328 1.55677
-0.256856 -0.4206 1.5474
-0.288422 -0.3901 1.53966
-0.292133 -0.41236 1.53586
-0.246321 -0.4345 1.53426
-0.336107 -0.46542 1.58274
-0.309976 -0.46216 1.58231
-0.245633 -0.47065 1.58124
-0.298119 -0.45897 1.56386
-0.280888 -0.47329 1.5621
-0.266881 -0.4489 1.57017
-0.26768 -0.49798 1.56332
-0.247584 -0.49591 1.56497
-0.323161 -0.49699 1.55826
-0.288447 -0.44946 1.54794
-0.265999 -0.4653 1.55539
-0.250495 -0.44807 1.5441
-0.239189 -0.4668 1.54138
-0.29046 -0.52199 1.55491
-0.258123 -0.49452 1.54929
-0.170605 -0.38912 1.57093
-0.233359 -0.43377 1.57677
-0.208248 -0.43442 1.57841
-0.188363 -0.43487 1.5647
-0.182372 -0.39283 1.54806
-0.166935 -0.42659 1.55544
-0.18887 -0.42444 1.5492
-0.173135 -0.40813 1.54443
-0.133765 -0.37114 1.5592
-0.144975 -0.38922 1.53571
-0.119175 -0.37765 1.54247
-0.144145 -0.43227 1.54171
-0.191647 -0.45985 1.5787
-0.169015 -0.47214 1.58008
-0.173535 -0.46741 1.56436
-0.234964 -0.49469 1.58114
-0.188842 -0.49572 1.57585
-0.192587 -0.52414 1.57977
-0.203475 -0.52033 1.56591
-0.175975 -0.5104 1.56143
-0.126105 -0.46499 1.58619
-0.146515 -0.4602 1.56414
-0.143045 -0.48367 1.56383
-0.113865 -0.48944 1.58233
-0.217877 -0.4487 1.55459
-0.202688 -0.46258 1.5519
-0.191443 -0.48052 1.55107
-0.162245 -0.46223 1.54259
-0.176885 -0.47961 1.53478
-0.204899 -0.49737 1.55348
-0.232353 -0.52742 1.55909
-0.221595 -0.51905 1.54896
-0.160155 -0.49443 1.54964
-0.224535 -0.49472 1.54386
-0.184223 -0.52201 1.54241
-0.120985 -0.44669 1.55622
-0.126135 -0.47939 1.54827
-0.097645 -0.45206 1.54751
-0.107435 -0.46765 1.548
-0.122505 -0.44064 1.53499
-0.140395 -0.47366 1.5385
-0.139325 -0.49552 1.55015
-0.143815 -0.53087 1.55821
0.196965 -0.23272 1.56158
0.186405 -0.22136 1.55447
0.179915 -0.24784 1.53982
0.200015 -0.24621 1.54048
0.228905 -0.23301 1.54323
0.226655 -0.25578 1.53608
-0.072715 -0.46947 1.55394
0.221265 -0.41155 1.57028
0.265855 0.655929 1.94508
0.289255 0.666937 1.93352
0.316705 0.657371 1.95022
0.377785 0.681676 1.95294
0.364105 0.672522 1.94094
0.358425 0.657674 1.94708
0.347775 0.674661 1.93658
0.383865 0.647483 1.93732
0.363145 0.62612 1.94784
0.329405 0.623026 1.93501
0.326565 0.643211 1.92843
0.326785 0.602182 1.93002
0.355315 0.623197 1.92727
0.370475 0.629431 1.93228
0.365145 0.608196 1.93695
0.306325 0.659202 1.91836
0.289775 0.650507 1.90987
0.258965 0.64303 1.91926
0.291745 0.626861 1.90701
0.320265 0.68282 1.91689
0.339085 0.658924 1.91852
0.381935 0.679657 1.92599
0.363895 0.659896 1.92111
0.377935 0.647321 1.92066
0.337235 0.677794 1.90689
0.332945 0.622436 1.91379
0.343065 0.636819 1.90362
0.380505 0.641392 1.90278
0.453315 0.741299 1.90192
0.518835 0.692858 1.91583
0.386605 0.623209 1.92984
0.433045 0.6273 1.90926
0.370215 0.705323 1.86812
0.295405 0.64589 1.89465
0.301855 0.656307 1.88051
0.245205 0.630111 1.89716
0.278045 0.632462 1.89707
0.298075 0.611678 1.89479
0.287135 0.615428 1.88216
0.331325 0.644716 1.89133
0.356675 0.646622 1.89979
0.312815 0.628854 1.89773
0.322755 0.601546 1.89489
0.326995 0.625622 1.88396
0.322985 0.605263 1.8766
0.241715 0.646855 1.84912
0.256975 0.634318 1.8707
0.261565 0.618813 1.86413
0.293925 0.632122 1.86863
0.276875 0.600956 1.87171
0.305895 0.607871 1.8716
0.240585 0.622756 1.85858
0.264925 0.629597 1.85161
0.300875 0.621324 1.85587
0.294955 0.601444 1.85314
0.345035 0.647905 1.87149
0.317635 0.647656 1.8671
0.325715 0.629956 1.8623
0.395845 0.729258 1.86703
0.277325 0.65015 1.84828
0.261955 0.604657 1.8454
0.287015 0.617868 1.83908
0.243035 0.624261 1.82767
0.305115 0.621936 1.82809
0.267505 0.622312 1.81358
0.257855 0.604958 1.81858
0.287345 0.605694 1.81143
0.247165 0.599175 1.79605
0.327165 0.652157 1.80879
0.487735 0.667618 1.83219
0.235155 0.627359 1.74459
0.621985 0.782086 1.7876
0.275345 0.542135 1.93333
0.338845 0.593707 1.91166
0.316055 0.588663 1.9065
0.315355 0.455354 1.92567
0.292545 0.594811 1.89407
0.259045 0.56562 1.87942
0.243295 0.543211 1.89935
0.243735 0.527969 1.87566
0.301955 0.560495 1.86116
0.269695 0.552505 1.84865
0.247405 0.503889 1.87184
0.241595 0.52738 1.85225
0.238945 0.497103 1.85265
0.417335 0.583883 1.88887
0.445735 0.555395 1.87338
0.279875 0.400108 1.8694
0.281125 0.568547 1.84044
0.237155 0.569797 1.83329
0.263955 0.555713 1.82436
0.230865 0.540977 1.84079
0.237935 0.543123 1.82407
0.267765 0.587572 1.81049
0.244525 0.568686 1.81674
0.267385 0.57232 1.81941
0.282895 0.565833 1.82047
0.267675 0.573782 1.79969
0.256655 0.560767 1.80101
0.263265 0.530916 1.81786
0.230295 0.510497 1.81737
0.249705 0.543014 1.7973
0.235965 0.495218 1.83308
0.234655 0.425455 1.83177
0.417325 0.431874 1.80396
0.250575 0.576297 1.79322
0.272755 0.595064 1.78777
0.236875 0.534243 1.78129
0.258965 0.592752 1.76817
0.245415 0.564104 1.76793
0.252495 0.539051 1.76948
0.298055 0.377867 1.83195
0.323745 0.336007 1.82733
0.383255 0.394998 1.8083
0.267935 0.290025 1.82609
0.496485 0.25883 1.84826
0.384245 0.33243 1.77792
0.286735 0.339105 1.75985
0.320085 0.302109 1.78789
0.419065 0.339576 1.7843
0.393305 0.30999 1.75267
0.234855 0.668551 1.73211
0.276035 0.660589 1.73622
0.259035 0.645864 1.72792
0.242115 0.652928 1.71756
0.280075 0.614564 1.73067
0.242335 0.637869 1.72713
0.257105 0.618952 1.71913
0.350395 0.608437 1.74335
0.286565 0.67218 1.69439
0.280365 0.649427 1.70329
0.235965 0.626255 1.69994
0.259125 0.631162 1.69831
0.254985 0.611639 1.69944
0.256315 0.613318 1.6686
0.242115 0.597556 1.65984
0.303055 0.768286 1.61538
0.248125 0.778741 1.60309
0.291325 0.754925 1.54302
0.260175 0.609235 1.57368
0.256005 0.603289 1.5469
0.327365 0.664254 1.55725
0.241395 0.539605 1.73113
0.246585 0.55235 1.70589
0.243965 0.585121 1.70401
0.420165 0.574443 1.70843
0.298585 0.562145 1.69013
0.282765 0.544242 1.68062
0.302595 0.534929 1.67441
0.324905 0.557684 1.67442
0.246675 0.561921 1.63913
0.263025 0.528968 1.65949
0.229675 0.53412 1.6548
0.246945 0.514009 1.64445
0.285025 0.530624 1.64721
0.372905 0.529273 1.64335
0.250575 0.492454 1.66395
0.286285 0.468556 1.65488
0.278965 0.503052 1.65092
0.306405 0.494527 1.65057
0.275205 0.485232 1.64146
0.250215 0.449005 1.65047
0.268935 0.45589 1.64051
0.395265 0.553146 1.68681
0.493835 0.52868 1.65322
0.492485 0.37051 1.7228
0.468795 0.35241 1.70833
0.519505 0.25118 1.73184
0.486825 0.281394 1.7038
0.230165 0.270778 1.66961
0.270495 0.247771 1.6768
0.483595 0.22618 1.68881
0.447975 0.224413 1.65908
0.549075 0.56471 1.71336
0.583965 0.583305 1.69739
0.614085 0.438189 1.66299
0.600065 0.316127 1.69453
0.565025 0.244124 1.70628
0.612145 0.395699 1.65943
0.566125 0.302477 1.66742
0.283225 0.587077 1.62425
0.253165 0.506668 1.62744
0.268525 0.517704 1.62675
0.258845 0.596609 1.61142
0.244395 0.462537 1.63136
0.286915 0.476527 1.6301
0.251495 0.482081 1.61361
0.240235 0.457361 1.61513
0.263215 0.463406 1.615
0.270075 0.496712 1.62502
0.267025 0.426429 1.62297
0.270815 0.450839 1.6232
0.334095 0.491998 1.63687
0.231805 0.466326 1.60278
0.288155 0.479271 1.60403
0.241605 0.458656 1.58673
0.250995 0.444132 1.59447
0.244885 0.420047 1.59806
0.264315 0.554396 1.56872
0.293525 0.552543 1.56092
0.306835 0.547211 1.57508
0.269715 0.516912 1.57337
0.242665 0.514955 1.56839
0.296145 0.511694 1.56367
0.298705 0.593405 1.54094
0.247435 0.528167 1.55242
0.275925 0.538759 1.55758
0.298595 0.53582 1.55833
0.286595 0.527773 1.54746
0.268455 0.503496 1.55231
0.323085 0.51297 1.54967
0.257285 0.497447 1.56742
0.232135 0.490349 1.56312
0.267355 0.484022 1.56096
0.234325 0.473011 1.57146
0.283455 0.495688 1.56383
0.276835 0.448628 1.56511
0.323715 0.493383 1.56481
0.317205 0.458923 1.56043
0.324005 0.455596 1.58301
0.283295 0.491852 1.54746
0.248315 0.487626 1.54615
0.243835 0.464214 1.53865
0.294635 0.466385 1.54533
0.284495 0.432366 1.5367
0.333685 0.48321 1.54929
0.318625 0.489427 1.5453
0.233415 0.352089 1.61985
0.252005 0.403117 1.58668
0.337475 0.228906 1.61805
0.238385 0.259324 1.60929
0.433045 0.223718 1.63837
0.477105 0.263704 1.60304
0.312935 0.221507 1.54155
0.498795 0.299587 1.5367
0.598905 0.378366 1.61656
0.481755 0.128908 1.8772
0.316045 -0.03574 1.91141
0.360505 -0.12479 1.91298
0.437975 0.0711399 1.83042
0.373935 0.202369 1.79422
0.382085 0.0633899 1.75722
0.375585 0.0773799 1.74906
0.511435 0.176722 1.75036
0.536355 0.179482 1.75197
0.487795 0.135805 1.76312
0.539195 0.131675 1.7686
0.536875 0.162767 1.74804
0.517395 0.137689 1.7469
0.414755 0.0846699 1.79299
0.461665 0.11561 1.78968
0.435955 0.11698 1.78703
0.397605 0.10194 1.77411
0.421885 0.11658 1.76584
0.396095 0.0803299 1.75281
0.386255 0.0407 1.74466
0.478405 0.119255 1.76026
0.474545 0.0905299 1.76326
0.501005 0.118127 1.75052
0.317315 -0.01774 1.84812
0.270125 -0.00114 1.81619
0.392825 0.0295 1.80935
0.427965 0.00989997 1.80667
0.485615 -0.14065 1.82328
0.520285 -0.0985601 1.8147
0.280385 0.0287299 1.74645
0.449185 -0.0268401 1.79586
0.386975 -0.0212801 1.76702
0.469165 -0.00624001 1.7572
0.470455 -0.11493 1.78118
0.574125 0.139331 1.81175
0.553515 0.218144 1.74861
0.552375 0.200838 1.74741
0.566045 0.146125 1.76144
0.558085 0.167297 1.75358
0.548285 0.08644 1.77491
0.611835 0.05062 1.76002
0.540155 0.000530005 1.81314
0.449085 -0.2203 1.93902
0.453065 -0.31998 1.93832
0.373925 0.134132 1.73791
0.367865 0.147061 1.72177
0.373715 0.139084 1.69603
0.365265 0.0955199 1.72861
0.367825 0.11557 1.71102
0.349635 0.08084 1.71239
0.348785 0.11057 1.69664
0.372495 0.1108 1.69121
0.335155 0.04 1.70995
0.368915 0.0694 1.70745
0.352565 0.05106 1.71677
0.434735 0.127919 1.74116
0.443295 0.162989 1.72356
0.534115 0.199886 1.73082
0.501645 0.181907 1.73155
0.538525 0.17441 1.73235
0.520395 0.187366 1.71768
0.482035 0.165447 1.73867
0.507125 0.161964 1.74244
0.500555 0.138066 1.72643
0.467185 0.138433 1.71797
0.516815 0.128836 1.72459
0.458555 0.186573 1.7098
0.434665 0.204767 1.69798
0.422315 0.163738 1.69815
0.442895 0.14477 1.70204
0.454185 0.131682 1.69533
0.532715 0.21171 1.7089
0.536195 0.193752 1.71444
0.528665 0.188176 1.69219
0.469055 0.155096 1.71061
0.497245 0.166826 1.70852
0.488305 0.140971 1.70517
0.538655 0.167006 1.70882
0.514475 0.149061 1.71144
0.509825 0.134402 1.70277
0.407785 0.125431 1.73793
0.399705 0.10571 1.7357
0.416155 0.10207 1.73619
0.461395 0.120608 1.73726
0.422835 0.11571 1.72526
0.439285 0.127058 1.71898
0.434985 0.07994 1.72236
0.490855 0.09672 1.73813
0.521785 0.118795 1.73817
0.498265 0.10441 1.71926
